ply
format ascii 1.0
element vertex 1254
property float x
property float y
property float z
property uchar red
property uchar green
property uchar blue
end_header
6.80099 98.0091 -60.3885  255 255 255
6.85206 98.0499 -60.4823  255 255 255
56.6715 47.1761 16.1439  255 255 255
0.638031 96.4058 -57.8562  255 255 255
21.8363 101.96 -67.5763  255 255 255
2.39116 96.7171 -58.63  255 255 255
-0.126221 96.0047 -57.6962  255 255 255
29.4313 103.389 -71.1572  255 255 255
58.9746 43.6532 20.8246  255 255 255
59.1289 43.7653 20.6987  255 255 255
58.8161 42.6898 22.245  255 255 255
60.2495 39.6829 27.126  255 255 255
58.3629 44.7402 18.7254  255 255 255
-13.451 92.0923 -52.042  255 255 255
25.0709 101.757 -69.7122  255 255 255
57.8702 67.7621 -18.0883  255 255 255
62.0289 40.644 24.1413  255 255 255
58.7922 66.551 -17.3318  255 255 255
-0.203108 94.6763 -58.2063  255 255 255
58.0972 66.7634 -18.2032  255 255 255
65.0836 37.3755 28.758  255 255 255
24.5055 100.021 -68.8238  255 255 255
57.7567 44.6691 16.8568  255 255 255
60.4709 41.7374 21.6294  255 255 255
59.2268 109.127 -85.3739  255 255 255
40.3325 104.602 -77.416  255 255 255
39.6681 104.179 -77.344  255 255 255
-11.4146 91.2359 -53.6845  255 255 255
-14.968 90.1845 -52.0909  255 255 255
0.564304 94.0713 -59.5398  255 255 255
16.8733 97.7042 -67.1019  255 255 255
-9.52356 90.8466 -55.1391  255 255 255
56.6377 44.9115 13.9998  255 255 255
-25.2865 86.8557 -47.7009  255 255 255
61.7251 61.2711 -12.565  255 255 255
80.6114 112.125 -95.8899  255 255 255
62.0427 60.4644 -12.0672  255 255 255
63.4865 59.445 -10.3951  255 255 255
77.8029 111.419 -94.6869  255 255 255
61.5626 60.7418 -12.598  255 255 255
59.2055 107.127 -86.8809  255 255 255
59.2271 107.108 -86.8892  255 255 255
62.9479 37.6786 24.7237  255 255 255
80.3021 111.523 -96.1245  255 255 255
26.6668 98.2571 -72.1388  255 255 255
26.6098 98.2095 -72.0015  255 255 255
74.118 110.103 -94.0074  255 255 255
74.118 110.103 -94.0074  255 255 255
64.7745 56.8834 -7.54325  255 255 255
-61.3518 76.3344 -29.507  255 255 255
79.3682 110.494 -96.1565  255 255 255
-12.408 88.6385 -54.7377  255 255 255
57.9418 42.9182 14.4309  255 255 255
80.4244 110.711 -96.9785  255 255 255
60.3753 105.653 -88.4728  255 255 255
56.8518 42.577 14.251  255 255 255
-9.41973 88.8748 -56.8122  255 255 255
64.9664 55.8237 -8.31396  255 255 255
64.2054 56.6624 -9.83739  255 255 255
-7.79054 88.8528 -57.8392  255 255 255
-7.79054 88.8528 -57.8392  255 255 255
71.8235 107.286 -94.0565  255 255 255
-55.8565 77.4749 -34.7205  255 255 255
52.9663 102.909 -86.3154  255 255 255
63.6192 55.771 -9.84773  255 255 255
72.8924 107.143 -95.2206  255 255 255
-0.613414 89.8244 -61.6237  255 255 255
54.1017 102.542 -87.2003  255 255 255
75.0275 107.22 -96.1807  255 255 255
75.0457 107.279 -96.2648  255 255 255
-63.306 75.2963 -31.5892  255 255 255
57.5655 40.9293 13.8366  255 255 255
-7.00196 87.8224 -58.9769  255 255 255
46.163 100.175 -84.1608  255 255 255
98.2904 112.055 -107.756  255 255 255
67.6158 51.0273 -4.38754  255 255 255
57.4122 40.7419 13.3559  255 255 255
-54.0314 77.0766 -37.0862  255 255 255
60.6846 58.6582 -17.5072  255 255 255
-30.2274 81.9336 -48.2273  255 255 255
47.3597 99.5487 -84.9057  255 255 255
49.1711 99.7988 -85.5209  255 255 255
62.5597 56.494 -14.6047  255 255 255
67.11 51.1721 -5.83422  255 255 255
-17.0236 84.7963 -55.0455  255 255 255
48.2808 99.5428 -85.432  255 255 255
-1.92741 88.1053 -62.4382  255 255 255
58.9035 38.2903 15.5795  255 255 255
109.401 112.867 -113.268  255 255 255
-35.3306 79.9958 -46.1302  255 255 255
57.3817 39.6693 13.0523  255 255 255
15.6371 91.5748 -71.2617  255 255 255
64.2574 53.4985 -11.3893  255 255 255
64.2415 32.2005 25.0821  255 255 255
-1.35559 87.1361 -62.8777  255 255 255
59.9512 58.1117 -19.4426  255 255 255
66.08 29.9637 28.3273  255 255 255
55.0536 99.2415 -89.5042  255 255 255
12.664 90.0658 -70.4903  255 255 255
-31.277 80.1902 -49.0643  255 255 255
-17.3786 83.1146 -55.6793  255 255 255
-17.4042 83.101 -55.6296  255 255 255
-2.20806 86.4735 -63.1663  255 255 255
-2.20806 86.4735 -63.1663  255 255 255
-2.22166 86.4887 -63.1601  255 255 255
-3.7673 85.5724 -61.6801  255 255 255
-61.1478 73.1678 -34.0102  255 255 255
-61.1478 73.1678 -34.0102  255 255 255
-18.9111 82.675 -55.1923  255 255 255
117.484 113.039 -118.878  255 255 255
-18.4728 82.4355 -55.251  255 255 255
-18.4728 82.4355 -55.251  255 255 255
62.4476 33.2722 20.888  255 255 255
66.5288 28.5084 28.8439  255 255 255
-36.5703 78.2983 -46.9763  255 255 255
-36.5647 78.2325 -46.8191  255 255 255
-14.0293 83.0773 -57.8659  255 255 255
-0.986634 86.0696 -64.3134  255 255 255
69.3299 101.643 -97.2604  255 255 255
-21.1141 81.5468 -54.4772  255 255 255
41.628 95.5024 -84.7895  255 255 255
69.7457 101.3 -97.1362  255 255 255
-61.8897 72.5539 -34.6127  255 255 255
83.714 104.145 -103.814  255 255 255
36.7244 94.1564 -82.9952  255 255 255
40.7896 94.8713 -84.6622  255 255 255
40.774 94.887 -84.6866  255 255 255
66.1945 28.6976 27.2852  255 255 255
-17.8591 82.0392 -56.6881  255 255 255
39.7642 94.4599 -84.2815  255 255 255
-17.7839 81.5229 -56.6599  255 255 255
-17.8062 81.5035 -56.5903  255 255 255
40.1906 94.0216 -84.3686  255 255 255
62.4451 53.3177 -16.2192  255 255 255
61.4262 54.1523 -18.1708  255 255 255
-40.8328 76.2902 -45.346  255 255 255
-16.1173 81.7988 -57.7866  255 255 255
-7.74707 83.2671 -62.0565  255 255 255
44.3919 94.5839 -87.1872  255 255 255
44.3919 94.5839 -87.1872  255 255 255
40.8454 94.143 -86.2685  255 255 255
57.1463 37.4093 10.443  255 255 255
-23.124 79.6 -54.6258  255 255 255
54.389 95.6236 -91.8773  255 255 255
40.1332 92.6471 -85.6684  255 255 255
58.4877 56.5448 -25.3374  255 255 255
66.0655 47.0796 -9.25166  255 255 255
-44.9871 74.2045 -44.2926  255 255 255
61.0849 31.9533 17.9474  255 255 255
61.7093 51.5412 -17.6363  255 255 255
-49.5765 72.9369 -42.2099  255 255 255
39.0233 91.4008 -85.6192  255 255 255
-18.2008 79.2516 -57.9108  255 255 255
67.0597 46.0527 -9.15245  255 255 255
57.0523 35.8492 9.69181  255 255 255
62.9507 29.9088 19.8163  255 255 255
63.466 29.3447 20.7046  255 255 255
63.4659 29.3447 20.7046  255 255 255
-51.9263 71.905 -41.1149  255 255 255
-51.9263 71.905 -41.1149  255 255 255
-51.8421 70.1528 -38.2096  255 255 255
-20.4823 78.1957 -57.3643  255 255 255
30.6437 88.7936 -82.3302  255 255 255
61.0038 31.1932 16.428  255 255 255
59.6587 32.6254 13.5076  255 255 255
67.0229 24.8583 26.6926  255 255 255
18.8801 85.7075 -77.2858  255 255 255
-1.5423 81.5125 -67.482  255 255 255
57.246 93.411 -95.795  255 255 255
-61.1881 69.1918 -37.4303  255 255 255
-62.7115 68.6811 -36.4293  255 255 255
-51.5121 70.7583 -42.054  255 255 255
62.2407 29.2601 18.1074  255 255 255
-54.5261 70.6022 -41.488  255 255 255
-53.0623 68.5794 -38.2492  255 255 255
-53.0623 68.5793 -38.249  255 255 255
58.4605 54.507 -27.6462  255 255 255
0.0654829 81.2983 -68.6818  255 255 255
54.9944 92.2556 -94.9325  255 255 255
54.9944 92.2557 -94.9326  255 255 255
84.6021 98.0306 -108.671  255 255 255
-0.0840114 80.6691 -68.739  255 255 255
61.2079 29.855 15.3568  255 255 255
-26.6991 75.0527 -55.5054  255 255 255
-29.4915 74.5494 -54.405  255 255 255
-48.031 70.8751 -45.0791  255 255 255
-46.2586 71.0668 -45.651  255 255 255
-13.8704 77.4264 -62.0851  255 255 255
-71.3749 66.0069 -33.1681  255 255 255
60.3654 30.4137 13.4314  255 255 255
-17.607 76.5472 -60.549  255 255 255
39.9375 88.0251 -89.1872  255 255 255
-15.6216 76.6657 -61.2749  255 255 255
59.8105 50.9475 -24.8833  255 255 255
-64.5803 66.897 -36.873  255 255 255
-77.4679 64.5203 -30.9299  255 255 255
-55.5058 68.5912 -41.9056  255 255 255
85.5076 96.0048 -110.91  255 255 255
93.9606 97.6875 -115.182  255 255 255
-61.7968 66.9986 -38.2198  255 255 255
-12.9704 76.5902 -63.4966  255 255 255
1.84682 79.5039 -71.0101  255 255 255
4.97437 80.5102 -73.2546  255 255 255
59.6306 30.4071 11.587  255 255 255
84.7822 95.5331 -110.884  255 255 255
-22.7756 74.3237 -58.215  255 255 255
86.1747 95.5631 -111.611  255 255 255
60.2378 28.4409 14.6406  255 255 255
0.682424 78.8211 -70.5527  255 255 255
-25.4768 73.5166 -57.0619  255 255 255
-23.7748 73.9772 -58.391  255 255 255
-25.0675 73.7598 -57.6935  255 255 255
-76.1446 64.1336 -31.9783  255 255 255
-73.0373 61.0366 -27.1093  255 255 255
25.3967 83.1378 -83.2985  255 255 255
80.2396 93.3151 -109.028  255 255 255
54.5473 88.4475 -97.7351  255 255 255
-6.68078 76.7855 -67.6017  255 255 255
4.41671 78.7485 -72.9378  255 255 255
84.1056 93.839 -111.203  255 255 255
67.0906 22.0188 24.4033  255 255 255
-11.0727 75.6723 -65.1708  255 255 255
2.94219 78.4212 -72.3836  255 255 255
2.77574 78.2168 -71.9152  255 255 255
100.215 97.2365 -119.799  255 255 255
-13.2963 75.2035 -64.1239  255 255 255
-15.0464 74.5835 -62.9295  255 255 255
85.0582 93.7953 -112.096  255 255 255
0.495352 77.4167 -70.8954  255 255 255
0.675439 77.6532 -71.3561  255 255 255
59.7066 28.7104 11.796  255 255 255
-25.0814 72.6639 -58.4227  255 255 255
26.3105 82.8592 -84.8804  255 255 255
73.5606 90.7573 -106.839  255 255 255
60.3922 47.9947 -25.797  255 255 255
-14.6686 74.1014 -63.9564  255 255 255
5.38362 77.6915 -74.3201  255 255 255
-14.9577 73.8121 -64.2335  255 255 255
0.797078 76.3365 -72.0076  255 255 255
-45.8706 67.5914 -48.1499  255 255 255
77.8924 90.8026 -110.483  255 255 255
64.0913 23.5118 18.5103  255 255 255
58.5338 49.3425 -30.5296  255 255 255
-14.3115 73.0646 -64.8392  255 255 255
99.526 94.0838 -120.994  255 255 255
65.9681 40.3795 -14.9089  255 255 255
66.6557 39.9112 -14.2393  255 255 255
61.0998 46.5062 -26.3728  255 255 255
67.834 19.4128 24.7527  255 255 255
67.7051 19.4511 24.8166  255 255 255
-15.1098 72.6021 -64.4603  255 255 255
-15.1098 72.6021 -64.4603  255 255 255
1.0011 75.6151 -72.9141  255 255 255
43.9607 83.4973 -94.7939  255 255 255
66.0672 18.7787 25.5719  255 255 255
67.473 19.4021 24.3475  255 255 255
40.2159 82.7354 -92.9584  255 255 255
68.2467 18.784 25.1043  255 255 255
39.2036 82.7925 -93.2699  255 255 255
26.9672 79.9661 -86.5268  255 255 255
59.1219 27.4572 8.23172  255 255 255
69.1923 16.9433 27.6267  255 255 255
53.6944 84.4477 -100.378  255 255 255
66.9928 86.7841 -107.15  255 255 255
87.7221 90.3191 -116.801  255 255 255
-52.2157 64.6455 -45.6314  255 255 255
57.6645 28.5409 5.44048  255 255 255
54.4351 83.9058 -101.288  255 255 255
-63.0374 60.4186 -36.467  255 255 255
60.9976 24.9669 11.0474  255 255 255
-12.5685 71.424 -67.3102  255 255 255
49.2109 81.9935 -98.7074  255 255 255
59.4751 25.7726 8.5252  255 255 255
59.4284 25.744 8.54495  255 255 255
58.9793 45.8351 -31.1458  255 255 255
-68.0026 61.3468 -39.0241  255 255 255
18.7476 76.3409 -84.2962  255 255 255
60.8774 43.8802 -27.8629  255 255 255
58.7322 26.9094 5.65248  255 255 255
36.035 79.2403 -93.1935  255 255 255
62.0052 23.2033 12.2586  255 255 255
-53.6154 63.35 -46.4283  255 255 255
34.8805 79.853 -94.7735  255 255 255
66.9578 18.0012 21.3691  255 255 255
-52.8945 63.3637 -47.2244  255 255 255
59.3366 25.1352 7.62248  255 255 255
-26.6456 67.5957 -61.0351  255 255 255
67.2099 36.2142 -15.5365  255 255 255
-37.5695 65.5133 -55.0623  255 255 255
-6.30312 70.7691 -71.8274  255 255 255
61.2886 42.1089 -27.2338  255 255 255
58.838 25.1092 6.65749  255 255 255
67.449 35.802 -15.88  255 255 255
31.4801 76.7347 -90.8358  255 255 255
47.7486 79.9173 -99.8765  255 255 255
56.3493 27.6664 1.63727  255 255 255
61.4623 22.3124 11.2505  255 255 255
-2.79037 70.5382 -73.7997  255 255 255
66.2288 36.0361 -17.3968  255 255 255
55.5675 26.9783 2.11698  255 255 255
67.4503 35.3133 -16.3277  255 255 255
65.846 36.2851 -18.5393  255 255 255
29.23 75.9768 -91.3939  255 255 255
29.2076 75.9933 -91.3983  255 255 255
59.1379 21.0001 13.0345  255 255 255
61.3807 21.9544 10.798  255 255 255
77.3492 83.7909 -115.322  255 255 255
-36.3849 64.4163 -56.7687  255 255 255
62.2333 20.9862 11.9708  255 255 255
59.8274 41.8577 -30.2286  255 255 255
55.8177 26.9905 0.36091  255 255 255
66.6379 34.9323 -17.466  255 255 255
63.9443 19.1408 14.7586  255 255 255
-25.8803 65.9792 -63.07  255 255 255
61.9795 39.0133 -25.2735  255 255 255
51.8299 78.5654 -102.777  255 255 255
-54.2106 61.1012 -48.1791  255 255 255
64.9666 17.6787 16.8737  255 255 255
-32.0413 64.6758 -60.3167  255 255 255
22.389 73.3963 -88.3142  255 255 255
65.5495 17.1567 17.5481  255 255 255
55.9915 26.3694 0.0732773  255 255 255
-1.79695 69.326 -76.1538  255 255 255
82.2311 82.8727 -118.438  255 255 255
65.8852 34.2459 -18.0946  255 255 255
58.5322 42.872 -34.9017  255 255 255
32.1951 74.832 -94.6241  255 255 255
62.2234 19.9387 11.1619  255 255 255
-13.1912 67.0823 -70.6079  255 255 255
65.3414 34.4967 -19.4006  255 255 255
-54.1392 60.4623 -49.164  255 255 255
-54.1168 60.4055 -49.0041  255 255 255
65.6744 33.931 -18.7071  255 255 255
62.1315 78.6301 -109.75  255 255 255
62.0184 19.5042 10.9379  255 255 255
62.022 19.515 10.9054  255 255 255
-55.0894 59.8374 -48.4955  255 255 255
-53.2151 60.0789 -49.425  255 255 255
25.4008 72.7226 -91.5091  255 255 255
-14.4579 66.0081 -69.9922  255 255 255
-14.4466 65.9849 -69.9616  255 255 255
-24.4208 64.5799 -65.3978  255 255 255
58.5857 41.7284 -35.3693  255 255 255
61.9368 38.0528 -28.382  255 255 255
61.9642 38.0805 -28.3953  255 255 255
63.009 36.8512 -26.4698  255 255 255
65.7979 33.7547 -20.494  255 255 255
66.018 33.372 -19.9513  255 255 255
-53.6902 59.4904 -49.6306  255 255 255
-4.97819 66.9304 -75.0481  255 255 255
56.1802 24.7115 -0.475233  255 255 255
56.3271 24.7597 -0.659216  255 255 255
61.0938 20.0767 8.14255  255 255 255
-2.64464 67.2853 -76.779  255 255 255
62.888 36.6954 -26.8236  255 255 255
15.6044 67.8766 -81.7709  255 255 255
61.772 19.1489 9.69602  255 255 255
-26.7974 63.6231 -64.4973  255 255 255
-53.2043 59.2624 -49.8731  255 255 255
15.0241 67.7092 -81.7629  255 255 255
63.9803 35.4991 -25.3531  255 255 255
63.9803 35.4991 -25.3531  255 255 255
58.9338 21.7402 3.75082  255 255 255
65.1963 15.5443 15.6392  255 255 255
-41.6979 60.7743 -56.5113  255 255 255
-41.6979 60.7743 -56.5113  255 255 255
-43.212 60.4781 -55.6905  255 255 255
56.2791 75.8484 -108.347  255 255 255
63.8537 35.0536 -25.6435  255 255 255
-54.0075 58.6261 -50.1284  255 255 255
-2.08142 66.3575 -78.0053  255 255 255
61.6541 18.4572 8.85875  255 255 255
-11.6587 64.45 -72.6989  255 255 255
62.0049 36.8605 -30.5551  255 255 255
60.3408 19.2713 6.72855  255 255 255
-56.0924 57.7742 -49.1925  255 255 255
3.06976 66.9444 -81.417  255 255 255
-55.399 57.8766 -49.8181  255 255 255
-0.65306 66.1784 -79.202  255 255 255
15.545 65.577 -81.5155  255 255 255
62.3857 35.6495 -28.9682  255 255 255
-7.30513 64.7904 -75.6378  255 255 255
-7.2887 64.8165 -75.6982  255 255 255
-7.27839 64.8523 -75.7754  255 255 255
-36.6357 60.2931 -59.8941  255 255 255
65.9532 13.8685 15.9676  255 255 255
66.5898 31.1383 -20.8997  255 255 255
66.4129 31.079 -20.6633  255 255 255
-7.46449 -13.2237 86.2634  255 255 255
57.8818 21.5656 0.873624  255 255 255
57.7374 21.5183 1.04014  255 255 255
62.5864 16.7506 10.2543  255 255 255
62.5866 16.7471 10.2643  255 255 255
-37.8809 59.8737 -59.4173  255 255 255
64.7283 14.5479 13.9586  255 255 255
60.4755 18.63 5.9531  255 255 255
60.4755 18.63 5.9531  255 255 255
-71.4558 55.0211 -41.9512  255 255 255
60.4741 74.2188 -111.569  255 255 255
64.2228 32.6305 -25.568  255 255 255
57.2938 73.4437 -110.491  255 255 255
60.0708 36.3982 -32.9818  255 255 255
63.6956 15.0571 12.0146  255 255 255
64.5642 14.1979 13.7217  255 255 255
60.3042 73.9262 -112.597  255 255 255
-42.8073 58.3725 -57.6379  255 255 255
-42.7498 58.3865 -57.7246  255 255 255
0.289718 64.706 -81.1534  255 255 255
61.1921 73.0734 -112.78  255 255 255
61.1073 72.9951 -112.523  255 255 255
61.4452 16.652 7.02482  255 255 255
-66.236 54.6171 -45.2192  255 255 255
-24.1843 60.3151 -67.6398  255 255 255
-20.4233 61.0433 -70.3941  255 255 255
60.1395 17.5632 4.60559  255 255 255
62.8285 15.0498 9.34961  255 255 255
-13.3058 61.5303 -74.1013  255 255 255
59.7216 35.8639 -35.7968  255 255 255
-6.82389 62.2633 -78.0911  255 255 255
-23.1668 59.6831 -69.0392  255 255 255
-23.1512 59.6787 -69.0781  255 255 255
-21.397 59.9382 -70.1762  255 255 255
34.2047 67.9579 -100.319  255 255 255
-29.7613 58.5733 -65.3083  255 255 255
-16.0154 60.8747 -73.5557  255 255 255
58.603 18.3961 0.857021  255 255 255
-17.3276 60.3726 -72.6792  255 255 255
-10.7175 61.2609 -76.0806  255 255 255
36.493 68.0716 -101.782  255 255 255
33.6023 67.5007 -100.176  255 255 255
59.3028 17.7785 1.72275  255 255 255
40.5463 68.1319 -103.71  255 255 255
31.1145 66.9955 -99.4257  255 255 255
-40.5609 56.8594 -60.3181  255 255 255
23.4902 65.5839 -94.6639  255 255 255
-61.1142 53.7787 -48.7128  255 255 255
-54.7217 54.7247 -52.5267  255 255 255
-14.8023 60.3195 -74.7664  255 255 255
32.4606 66.8864 -100.415  255 255 255
-13.0928 60.0403 -75.3946  255 255 255
-52.88 54.4259 -53.4903  255 255 255
-21.551 58.8015 -70.9105  255 255 255
75.4438 1.15141 32.9371  255 255 255
-59.3829 53.5538 -50.3173  255 255 255
-18.2262 58.7726 -73.2302  255 255 255
12.5068 63.1253 -90.4057  255 255 255
73.4256 2.8343 28.1575  255 255 255
-26.1929 57.4272 -69.3631  255 255 255
-40.2977 54.8202 -60.0208  255 255 255
-62.266 52.5322 -49.418  255 255 255
58.4284 68.4302 -114.694  255 255 255
68.1771 2.59017 29.1558  255 255 255
-2.87521 60.2846 -82.597  255 255 255
57.7311 17.4421 -2.42221  255 255 255
-30.1257 56.393 -67.6423  255 255 255
15.0948 62.1764 -92.4404  255 255 255
62.5343 68.3966 -117.963  255 255 255
-24.8187 56.8898 -70.6001  255 255 255
-24.0296 56.7562 -70.7267  255 255 255
-26.2591 56.4416 -69.7023  255 255 255
61.9993 12.8289 5.75941  255 255 255
-30.7119 55.7096 -67.0769  255 255 255
-40.4732 54.3206 -61.8414  255 255 255
-40.4732 54.3206 -61.8413  255 255 255
61.3654 13.4112 4.01438  255 255 255
58.5728 15.6189 -0.847621  255 255 255
-67.7562 50.888 -47.3515  255 255 255
-55.6069 52.1866 -53.6974  255 255 255
-43.1088 53.7422 -60.912  255 255 255
-30.6774 55.1101 -67.76  255 255 255
56.4689 17.6848 -6.09197  255 255 255
-22.9086 56.0137 -72.3667  255 255 255
57.0123 16.8845 -4.56132  255 255 255
-42.8658 53.4883 -61.4569  255 255 255
1.30352 58.6118 -84.9272  255 255 255
38.1318 63.6554 -106.077  255 255 255
-24.0946 55.492 -72.1759  255 255 255
-26.1823 55.1595 -70.9677  255 255 255
-32.7433 54.2169 -67.2042  255 255 255
61.8779 11.7071 4.93763  255 255 255
-17.5591 53.4082 -70.2372  255 255 255
33.7467 62.5049 -104.499  255 255 255
70.69 3.06215 21.2416  255 255 255
-50.0302 51.5049 -57.93  255 255 255
-48.3449 51.6744 -58.8042  255 255 255
-48.5187 51.2587 -57.7739  255 255 255
-16.146 52.9234 -71.0809  255 255 255
-16.146 52.9234 -71.0809  255 255 255
36.8443 62.2234 -106.365  255 255 255
60.0726 12.7663 0.866247  255 255 255
60.6852 12.1482 1.7248  255 255 255
68.0301 5.26178 15.6381  255 255 255
-38.7049 52.4139 -64.7684  255 255 255
69.6612 3.56688 18.8009  255 255 255
-57.0349 49.91 -53.9432  255 255 255
60.9117 11.5948 1.88694  255 255 255
70.6984 1.44286 22.9101  255 255 255
72.2786 1.11166 23.2999  255 255 255
-7.35922 55.6467 -82.0497  255 255 255
60.6382 29.057 -39.2821  255 255 255
60.6382 29.057 -39.2822  255 255 255
-47.5267 50.8543 -60.1586  255 255 255
61.3263 28.4784 -38.5874  255 255 255
68.4393 4.29905 16.2392  255 255 255
-38.4869 51.7674 -65.5871  255 255 255
59.8467 11.8149 -0.148232  255 255 255
70.5182 2.19722 19.5088  255 255 255
51.7024 62.1037 -116.398  255 255 255
71.5629 0.764974 22.0953  255 255 255
73.5531 -1.21002 25.9695  255 255 255
73.5531 -1.21001 25.9695  255 255 255
71.5892 0.774303 21.5672  255 255 255
72.7967 0.0452161 22.85  255 255 255
-50.6258 49.7484 -59.2133  255 255 255
-32.9023 51.802 -69.2088  255 255 255
-28.3597 52.3062 -71.7221  255 255 255
-28.3649 52.2794 -71.6982  255 255 255
43.2061 60.6167 -111.66  255 255 255
61.2342 10.1986 1.61254  255 255 255
-45.2033 50.041 -61.8404  255 255 255
-53.1483 49.0823 -58.0071  255 255 255
70.8651 1.21781 19.5011  255 255 255
67.3487 4.12082 13.1911  255 255 255
-52.7565 48.9422 -58.3179  255 255 255
-64.5933 47.3573 -51.3587  255 255 255
-31.6014 51.2095 -70.8303  255 255 255
61.3009 9.52752 1.0132  255 255 255
61.9417 8.63165 2.46611  255 255 255
-48.0136 48.7486 -61.0492  255 255 255
58.9227 11.3781 -3.63122  255 255 255
58.9227 11.3781 -3.63122  255 255 255
-64.6791 46.7002 -51.9067  255 255 255
-57.5001 47.4058 -55.8869  255 255 255
-49.9841 48.3068 -60.6936  255 255 255
67.2967 3.31051 12.3327  255 255 255
36.4366 57.966 -109.879  255 255 255
-72.9502 45.416 -47.153  255 255 255
70.881 -0.0788219 18.7476  255 255 255
60.2918 9.35558 -1.40293  255 255 255
65.4346 20.9871 -31.2208  255 255 255
61.2077 8.42471 0.417813  255 255 255
61.2077 8.42471 0.417812  255 255 255
-62.4836 46.3413 -53.7074  255 255 255
69.0447 1.18279 15.2718  255 255 255
69.1944 0.817343 15.5888  255 255 255
67.6898 2.28832 12.5137  255 255 255
-64.9187 45.7159 -52.4192  255 255 255
-64.9076 45.6747 -52.3618  255 255 255
66.6717 2.68355 11.1986  255 255 255
62.448 7.06933 1.51541  255 255 255
73.6262 -3.59831 24.2095  255 255 255
74.0033 -3.56637 23.9376  255 255 255
65.3547 20.1783 -31.7769  255 255 255
65.373 20.1963 -31.8139  255 255 255
63.8861 5.21459 4.93953  255 255 255
-74.7289 44.3801 -47.5288  255 255 255
-71.1465 44.8158 -49.4461  255 255 255
-58.4624 46.0357 -56.5396  255 255 255
70.4822 -0.715639 17.3757  255 255 255
63.0353 -3.27561 25.9463  255 255 255
-69.4819 44.7688 -50.0141  255 255 255
-37.3495 48.2941 -69.5595  255 255 255
-37.3586 48.3273 -69.6704  255 255 255
68.6714 0.623749 13.8331  255 255 255
-49.872 46.3055 -61.3918  255 255 255
74.5074 -5.08724 26.0729  255 255 255
74.5074 -5.08724 26.0729  255 255 255
-63.0181 45.0518 -54.3522  255 255 255
-56.3783 45.5542 -57.7992  255 255 255
-29.5736 48.3751 -73.7744  255 255 255
74.4906 -5.33984 25.9227  255 255 255
21.2703 53.4331 -103.083  255 255 255
12.9393 52.5762 -98.3292  255 255 255
-29.1804 48.1802 -74.2711  255 255 255
70.1404 -1.16702 16.1005  255 255 255
-6.69688 50.2963 -87.453  255 255 255
71.1478 -2.2132 18.0522  255 255 255
71.3109 -2.1931 17.8812  255 255 255
-55.6218 45.1036 -58.7678  255 255 255
-74.9444 43.1339 -47.7937  255 255 255
-9.83189 2.23422 30.3828  255 255 255
5.8337 -1.93101 35.5403  255 255 255
71.8493 -3.06728 18.452  255 255 255
-15.4257 48.115 -81.3933  255 255 255
-72.2857 43.0856 -49.5994  255 255 255
72.6364 -3.67745 19.6267  255 255 255
77.0894 -8.55881 30.3937  255 255 255
77.0894 -8.55881 30.3937  255 255 255
-52.6231 44.5181 -60.0805  255 255 255
-49.7197 44.7143 -61.5783  255 255 255
-55.9582 44.3899 -59.1949  255 255 255
-66.8918 43.2425 -52.985  255 255 255
-3.80166 49.6953 -89.8887  255 255 255
-13.6198 46.8592 -80.3517  255 255 255
-14.8775 46.9786 -80.7271  255 255 255
-68.3592 42.7468 -52.0634  255 255 255
-68.3758 42.8926 -52.2955  255 255 255
-27.2371 46.9534 -76.5624  255 255 255
-69.9586 42.3649 -51.1653  255 255 255
-56.8641 43.3668 -59.0107  255 255 255
62.4319 4.13189 -0.196247  255 255 255
62.4319 4.1319 -0.19625  255 255 255
-71.28 42.2629 -51.2929  255 255 255
-63.1116 42.8296 -55.8624  255 255 255
-65.818 42.4914 -54.4871  255 255 255
-72.9544 41.6956 -50.4208  255 255 255
-40.0205 44.6113 -69.2644  255 255 255
-40.0205 44.6113 -69.2644  255 255 255
73.9764 -7.14399 23.7256  255 255 255
-61.1734 42.4876 -57.3022  255 255 255
-44.09 44.0681 -67.1785  255 255 255
66.7507 -0.34434 8.13721  255 255 255
66.8279 -0.340363 8.05861  255 255 255
-57.3747 42.3496 -58.1731  255 255 255
-53.26 42.8462 -61.3618  255 255 255
0.61589 -3.76793 37.7846  255 255 255
-57.7526 42.6621 -59.4661  255 255 255
3.07432 -4.23157 37.7552  255 255 255
64.295 1.47942 3.13037  255 255 255
-59.7207 42.1591 -58.1707  255 255 255
-41.0374 43.8486 -69.2737  255 255 255
-58.3065 42.3495 -59.378  255 255 255
76.0596 -9.30008 26.7655  255 255 255
-73.7412 40.9399 -50.222  255 255 255
-3.50932 47.2429 -91.2454  255 255 255
-3.40777 47.2869 -91.4929  255 255 255
-8.44231 -1.9505 35.1413  255 255 255
-8.35859 -1.90437 34.9769  255 255 255
-9.47028 -1.50581 34.1845  255 255 255
71.5834 -4.90546 16.4677  255 255 255
71.5561 -4.93095 16.5153  255 255 255
-48.893 43.0845 -65.3057  255 255 255
-1.3816 -3.81893 37.2646  255 255 255
-4.54745 -3.47598 37.2211  255 255 255
-2.25272 -3.88248 37.6268  255 255 255
-14.0131 1.04313 28.6993  255 255 255
-26.0933 44.6959 -78.6022  255 255 255
-26.0933 44.6959 -78.6022  255 255 255
-4.1444 -3.54101 36.8928  255 255 255
-4.49444 -3.7307 37.5001  255 255 255
-5.08616 -3.72628 37.2711  255 255 255
-25.7454 44.4237 -78.8681  255 255 255
64.1849 0.777351 2.16297  255 255 255
-9.61079 -2.41106 34.8772  255 255 255
-9.60331 -2.41117 34.8727  255 255 255
-27.6322 44.0071 -78.0613  255 255 255
64.0045 0.681018 1.79498  255 255 255
71.1781 -5.7199 15.8945  255 255 255
63.3427 1.15115 0.582379  255 255 255
-13.2015 -0.748506 31.0845  255 255 255
-59.3464 40.8935 -59.7048  255 255 255
-40.9137 42.43 -70.4623  255 255 255
-17.1394 2.22865 24.5761  255 255 255
-41.6653 42.3198 -69.9991  255 255 255
-6.26867 -4.19899 37.2973  255 255 255
-64.6737 40.2468 -56.8937  255 255 255
-3.47097 -5.03818 38.3725  255 255 255
67.7241 -3.05228 8.5822  255 255 255
-57.1351 40.6117 -60.9538  255 255 255
-4.77311 -4.89115 38.0152  255 255 255
-60.4071 40.2869 -59.1976  255 255 255
-60.3638 40.5565 -59.83  255 255 255
-4.30742 -5.22201 38.2849  255 255 255
-24.0994 43.2593 -81.199  255 255 255
-13.4846 -1.47771 31.5083  255 255 255
60.649 2.75003 -5.56812  255 255 255
61.6195 1.8263 -3.68248  255 255 255
72.0947 -7.2432 16.7379  255 255 255
72.0947 -7.2432 16.7379  255 255 255
4.91646 -6.59604 38.4236  255 255 255
-16.4473 0.713895 26.5273  255 255 255
63.0204 0.457783 -1.00891  255 255 255
61.1096 2.04406 -4.99538  255 255 255
66.9863 -3.19931 6.79563  255 255 255
66.9824 -3.20113 6.79707  255 255 255
73.2873 -7.71962 16.6148  255 255 255
-56.8646 39.9103 -61.588  255 255 255
-7.67097 -4.76256 37.1438  255 255 255
64.2976 -0.843644 1.20598  255 255 255
67.2287 -3.49097 7.08284  255 255 255
67.2494 -3.4985 7.10498  255 255 255
-65.2076 39.2174 -57.0827  255 255 255
-65.8189 39.0942 -56.6958  255 255 255
22.0995 37.9059 -87.0011  255 255 255
58.9577 3.66348 -9.49765  255 255 255
67.8386 -4.13025 8.09622  255 255 255
-14.5162 -1.87185 30.9961  255 255 255
-14.3279 -2.05023 31.4776  255 255 255
-17.2153 0.277367 26.151  255 255 255
-13.9563 -2.74885 32.1056  255 255 255
-3.93516 -6.7629 38.9364  255 255 255
63.392 -0.949016 -1.33057  255 255 255
73.211 -9.4416 17.7398  255 255 255
-16.783 -0.93933 27.9387  255 255 255
-32.9503 40.7688 -77.261  255 255 255
-26.5026 41.0973 -80.8692  255 255 255
71.8639 -8.52492 14.9701  255 255 255
-6.4376 -6.57003 38.4022  255 255 255
-7.00815 -6.40011 38.0022  255 255 255
-33.587 40.1311 -77.1711  255 255 255
-5.08528 -7.0299 38.827  255 255 255
6.13859 -8.5123 38.5889  255 255 255
67.4776 -5.20883 6.52816  255 255 255
66.7475 -4.2693 4.11734  255 255 255
66.7475 -4.2693 4.11733  255 255 255
-65.2287 37.5365 -57.8996  255 255 255
-61.7223 37.7059 -59.845  255 255 255
70.3942 -7.7571 11.8981  255 255 255
70.3942 -7.7571 11.8981  255 255 255
60.6343 0.588968 -7.48836  255 255 255
-9.16943 -6.14813 37.2597  255 255 255
-9.15084 -6.14503 37.2096  255 255 255
58.5775 2.17057 -11.2868  255 255 255
60.0445 0.991178 -8.64185  255 255 255
-10.5154 -5.78113 36.3616  255 255 255
3.96395 -9.01172 39.5049  255 255 255
58.5201 2.15209 -11.8136  255 255 255
67.4424 -7.04949 9.68297  255 255 255
69.5598 -7.50546 10.0719  255 255 255
67.3364 -5.82759 5.60701  255 255 255
-55.3195 37.4323 -64.6122  255 255 255
-40.586 38.5513 -73.6494  255 255 255
70.2668 -8.64416 11.7549  255 255 255
-31.7226 39.1163 -79.211  255 255 255
-31.7895 39.1336 -79.2158  255 255 255
-3.39161 -8.38939 39.5657  255 255 255
-48.6301 38.2661 -70.3613  255 255 255
67.9683 -6.74396 6.95088  255 255 255
69.5652 -8.27956 10.5076  255 255 255
69.3148 -8.10164 9.329  255 255 255
71.1596 -9.53839 12.5726  255 255 255
-69.7995 35.9232 -56.2345  255 255 255
-17.4404 -2.87893 29.0192  255 255 255
-67.2797 36.1273 -57.974  255 255 255
69.2694 -8.12929 8.89725  255 255 255
-64.0973 35.9939 -59.3333  255 255 255
61.2511 -1.37653 -7.44391  255 255 255
61.2511 -1.37653 -7.44391  255 255 255
-60.5068 35.9889 -61.86  255 255 255
62.626 -2.59789 -4.68982  255 255 255
-7.37171 -8.22885 38.5587  255 255 255
10.2632 -10.3915 37.4831  255 255 255
-3.01729 -9.43338 39.9353  255 255 255
61.6138 -2.0562 -7.0325  255 255 255
-59.5267 36.0175 -63.6174  255 255 255
-59.5574 35.8277 -63.1475  255 255 255
59.6104 -0.569749 -10.8747  255 255 255
-7.67589 -8.46791 38.5869  255 255 255
-65.4866 35.315 -59.3911  255 255 255
-33.9004 37.2907 -79.0859  255 255 255
11.7465 29.2764 -75.8077  255 255 255
11.7621 29.3211 -75.8987  255 255 255
-7.97499 -8.58213 38.5903  255 255 255
66.7214 -6.79451 2.97365  255 255 255
-54.1447 35.5177 -65.8995  255 255 255
-54.1447 35.5177 -65.8995  255 255 255
-30.6347 37.2637 -81.3036  255 255 255
9.1645 29.4137 -76.2301  255 255 255
-1.02895 -10.4045 40.1129  255 255 255
-1.02895 -10.4045 40.1129  255 255 255
73.9503 -11.2213 10.9685  255 255 255
-15.4342 -6.1105 33.0277  255 255 255
-18.6892 -4.0575 28.2506  255 255 255
-59.5115 34.5782 -64.246  255 255 255
-59.5115 34.5782 -64.246  255 255 255
60.7039 -2.64282 -9.88675  255 255 255
-58.7635 34.5716 -64.702  255 255 255
-12.2203 -8.04919 36.3846  255 255 255
60.6763 -2.85365 -10.3866  255 255 255
68.2424 -9.31486 5.04377  255 255 255
63.3545 -5.12537 -5.131  255 255 255
-13.5053 -7.71664 35.285  255 255 255
70.0543 -11.1452 8.65744  255 255 255
-13.2225 -8.10387 35.609  255 255 255
-13.2201 -8.10172 35.5835  255 255 255
-10.3816 -9.23128 37.5902  255 255 255
-57.1916 33.9072 -66.2486  255 255 255
-20.7471 -2.60061 22.763  255 255 255
-16.074 -6.85497 32.8188  255 255 255
-16.0905 -6.85899 32.8513  255 255 255
-4.61107 -10.9974 39.8753  255 255 255
69.5493 -10.8964 6.96649  255 255 255
-11.5276 -9.05771 36.9508  255 255 255
-17.3457 -5.54598 29.3486  255 255 255
-17.3457 -5.54598 29.3486  255 255 255
-18.1074 -5.88176 30.2968  255 255 255
-4.45789 -11.2549 39.9903  255 255 255
69.8383 -11.5025 7.68493  255 255 255
69.8383 -11.5025 7.68493  255 255 255
-13.2575 -8.72925 35.9084  255 255 255
7.16719 -12.9717 39.2813  255 255 255
-9.22304 -10.1904 38.3234  255 255 255
-9.22304 -10.1904 38.3234  255 255 255
-8.61536 -10.4523 38.6495  255 255 255
-5.48075 -11.4488 39.766  255 255 255
-7.41026 -10.9908 39.1418  255 255 255
62.9305 -6.12536 -6.61879  255 255 255
-17.1966 -7.10682 31.7222  255 255 255
-13.4891 -9.115 35.7724  255 255 255
-13.4969 -9.10553 35.788  255 255 255
-13.4928 -9.11035 35.7425  255 255 255
62.0954 -5.75767 -8.6566  255 255 255
-3.20222 -12.3949 40.3248  255 255 255
69.9763 -12.5255 7.38783  255 255 255
69.8276 -12.4514 6.91507  255 255 255
72.1529 -14.3948 11.1497  255 255 255
72.1247 -14.361 11.1453  255 255 255
7.35702 -13.8128 39.0964  255 255 255
7.35703 -13.8128 39.0964  255 255 255
7.72155 -13.9877 39.1118  255 255 255
62.8532 -6.89579 -7.46615  255 255 255
70.8971 -13.9194 9.2925  255 255 255
76.9375 -19.4216 22.8218  255 255 255
-13.3557 -9.78472 35.7907  255 255 255
63.0799 -7.37528 -7.0577  255 255 255
-28.5321 30.6741 -78.2247  255 255 255
-19.7681 3.06518 0.253187  255 255 255
8.00046 -14.2739 39.0241  255 255 255
71.4024 -14.3904 9.68478  255 255 255
-6.32206 -12.3151 39.6754  255 255 255
-10.9787 -10.9824 37.6793  255 255 255
73.2269 -15.5948 12.2618  255 255 255
-64.3928 31.214 -63.4744  255 255 255
66.9206 -10.9281 0.728551  255 255 255
-21.9953 -1.47041 13.5876  255 255 255
-13.9126 -10.1298 35.7219  255 255 255
-11.4374 -11.1721 37.4832  255 255 255
-42.4315 31.8347 -77.4767  255 255 255
-17.4724 -8.53953 32.1682  255 255 255
-11.9346 -11.1692 37.242  255 255 255
7.75513 -14.8946 39.0502  255 255 255
-4.95102 -13.2575 40.1018  255 255 255
-23.9349 1.91751 2.80553  255 255 255
-23.4818 -1.91865 14.2253  255 255 255
-12.2439 -11.2122 37.0254  255 255 255
74.3891 -17.9613 15.4862  255 255 255
-12.4665 -11.1948 36.8708  255 255 255
-13.6784 -10.7503 35.9022  255 255 255
71.9857 -15.8494 9.66653  255 255 255
71.9857 -15.8494 9.66654  255 255 255
74.704 -18.0544 14.8899  255 255 255
-8.99459 -12.7155 38.8136  255 255 255
1.84016 -14.9009 40.3019  255 255 255
69.0732 -13.7815 3.39768  255 255 255
-13.1073 -11.4115 36.5257  255 255 255
70.6393 -15.0871 6.42327  255 255 255
0.676387 -15.1915 40.5561  255 255 255
0.676387 -15.1915 40.5561  255 255 255
-8.30893 -13.3871 39.1357  255 255 255
65.527 -11.1693 -4.54023  255 255 255
-12.8347 -11.9068 36.7499  255 255 255
-5.52617 -14.1823 39.932  255 255 255
-23.3307 -3.79954 16.6606  255 255 255
-4.96894 -14.3263 40.0938  255 255 255
-10.9284 -12.773 38.0209  255 255 255
5.61136 -16.1015 39.7837  255 255 255
66.5789 -12.6443 -1.69887  255 255 255
-3.5799 -14.8187 40.3587  255 255 255
-43.7036 29.018 -76.4748  255 255 255
-7.30731 -14.2312 39.5676  255 255 255
71.6456 -17.1126 8.23637  255 255 255
-5.6491 -14.6527 39.9885  255 255 255
67.6814 -13.9069 0.0506917  255 255 255
-24.6611 -4.26863 17.1457  255 255 255
-10.7637 -13.3151 38.1223  255 255 255
69.0722 -15.2077 2.92313  255 255 255
72.0837 -17.5495 8.21933  255 255 255
70.0388 -16.231 4.73521  255 255 255
75.1404 -20.1514 14.3253  255 255 255
3.27776 -16.4815 40.1452  255 255 255
-3.01461 -15.603 40.3752  255 255 255
71.0512 -17.1448 6.37458  255 255 255
66.9399 -13.942 -1.50257  255 255 255
66.2741 -13.4615 -2.9865  255 255 255
-28.0802 -1.25164 7.37979  255 255 255
-23.7907 -5.35479 18.1721  255 255 255
70.8034 -17.2128 6.09903  255 255 255
-12.5433 -13.2781 37.1167  255 255 255
-4.16745 -15.6741 40.2291  255 255 255
-2.86539 -16.0307 40.3433  255 255 255
2.61289 -16.9869 40.2817  255 255 255
8.26172 -17.485 38.7703  255 255 255
-24.4173 -6.00163 19.2646  255 255 255
72.3241 -18.8773 8.56158  255 255 255
-26.5019 -2.4432 8.43605  255 255 255
-63.2836 26.604 -66.2612  255 255 255
-24.4053 -6.27953 19.181  255 255 255
66.5334 -14.5655 -3.06813  255 255 255
-8.59686 -14.9733 38.1664  255 255 255
-54.4097 26.76 -72.2422  255 255 255
28.1381 -18.2068 28.584  255 255 255
0.637881 -17.3434 40.1611  255 255 255
-30.6071 19.7397 -64.0913  255 255 255
-26.8743 -3.91742 10.8505  255 255 255
68.732 -16.9745 0.428997  255 255 255
-22.2021 -9.13069 25.0749  255 255 255
67.688 -16.1563 -1.58115  255 255 255
67.7755 -16.1524 -1.66718  255 255 255
-18.0287 -12.1224 32.4814  255 255 255
-18.0422 -12.1189 32.4855  255 255 255
-3.31724 -17.063 40.1871  255 255 255
68.8708 -17.6463 0.686676  255 255 255
-19.8011 -11.6403 30.309  255 255 255
-17.0892 -13.1615 33.7149  255 255 255
-9.37058 -16.0136 38.7456  255 255 255
24.6581 -19.792 31.5817  255 255 255
-4.72996 -17.3238 40.0193  255 255 255
69.8447 -18.9486 1.97187  255 255 255
69.8758 -18.9474 1.90268  255 255 255
67.0958 -16.9677 -3.56794  255 255 255
66.5953 -16.8809 -4.81893  255 255 255
67.1108 -17.3234 -3.41655  255 255 255
68.8792 -18.6238 -0.41553  255 255 255
68.8091 -18.603 -0.345314  255 255 255
75.2534 -23.6588 12.6653  255 255 255
-20.2437 -12.0437 29.109  255 255 255
9.37702 -19.7292 37.5006  255 255 255
-30.7396 -5.42279 12.7296  255 255 255
-17.621 -13.8502 33.1533  255 255 255
-17.7917 -13.9213 33.456  255 255 255
6.29114 -19.7179 38.7289  255 255 255
-9.63674 -16.9023 38.4796  255 255 255
-8.18839 -17.4368 38.9923  255 255 255
-24.8941 -10.2996 24.7024  255 255 255
-17.2682 -14.2493 33.4668  255 255 255
66.7693 -17.506 -5.50693  255 255 255
71.7655 -21.4695 4.92284  255 255 255
-6.14403 -18.019 39.4977  255 255 255
-2.14773 -18.8182 39.8734  255 255 255
-15.7972 -15.2045 34.8025  255 255 255
5.13473 -20.1336 39.0435  255 255 255
-15.9802 -15.2071 34.67  255 255 255
67.1483 -18.8847 -4.56608  255 255 255
-13.0961 -16.6214 36.6953  255 255 255
-29.8464 -7.64577 15.4439  255 255 255
-17.8309 -14.9482 32.8832  255 255 255
-17.8309 -14.9482 32.8832  255 255 255
-10.8621 -17.7073 37.8098  255 255 255
-26.3758 -11.0698 24.2326  255 255 255
73.5333 -24.519 8.3987  255 255 255
0.339798 -20.2534 38.9755  255 255 255
-9.48958 -18.3979 38.3612  255 255 255
-2.52912 -19.9935 39.5473  255 255 255
-1.95753 -19.8556 38.7289  255 255 255
67.9469 -20.5831 -3.83141  255 255 255
-14.5242 -17.0186 35.6649  255 255 255
-2.39574 -20.3737 39.4133  255 255 255
-19.4119 -15.6059 32.2153  255 255 255
-11.7813 -18.4989 37.1773  255 255 255
-14.775 -17.55 35.3614  255 255 255
-14.2441 -17.7402 35.7108  255 255 255
-5.89052 -20.5314 39.0014  255 255 255
-7.81272 -20.096 38.5813  255 255 255
-7.61166 -20.1845 38.6639  255 255 255
66.4622 -20.7358 -8.97866  255 255 255
-19.8303 -16.6379 33.7232  255 255 255
66.1404 -20.7965 -9.11461  255 255 255
74.4418 -28.2328 11.8025  255 255 255
75.6872 -28.0086 9.56472  255 255 255
66.8569 -22.0667 -6.21709  255 255 255
-31.3645 -11.3658 20.4597  255 255 255
70.1576 -24.0511 -2.46097  255 255 255
-18.2635 -18.2616 35.5084  255 255 255
-24.2189 -15.3709 28.2205  255 255 255
74.8164 -28.4099 7.05716  255 255 255
-23.2861 -16.1957 30.2145  255 255 255
-23.5147 -16.5568 30.4048  255 255 255
-23.3334 -16.4949 30.0584  255 255 255
-21.1909 -17.9837 34.2534  255 255 255
-11.2033 -21.2888 39.4485  255 255 255
90.2682 -31.3579 3.69358  255 255 255
-20.9863 -18.2707 34.3941  255 255 255
-21.1821 -18.267 34.2024  255 255 255
-24.1752 -16.1653 28.578  255 255 255
-31.9203 -11.0162 13.6004  255 255 255
-14.2935 -21.2622 39.2783  255 255 255
13.2418 -27.0648 41.0037  255 255 255
-19.5825 -19.3213 35.3621  255 255 255
10.2239 -26.8669 40.683  255 255 255
-15.8134 -21.2447 38.1705  255 255 255
-15.8153 -21.2392 38.1833  255 255 255
-15.8214 -21.4956 38.1462  255 255 255
11.3113 -28.0782 42.4854  255 255 255
16.4568 -28.6241 40.0757  255 255 255
72.616 -29.6926 1.21048  255 255 255
73.7956 -30.838 3.85557  255 255 255
-14.8811 -22.2483 38.7642  255 255 255
-14.8606 -22.2523 38.7284  255 255 255
-14.8841 -22.2551 38.7624  255 255 255
-14.4271 -22.306 38.8505  255 255 255
-29.1048 -16.6969 27.5666  255 255 255
-41.0076 2.95372 -43.2402  255 255 255
-28.4592 -17.1019 27.8388  255 255 255
-15.6649 -22.1838 38.0601  255 255 255
-30.9311 -16.3978 25.8692  255 255 255
-34.4998 0.323541 -39.4098  255 255 255
-12.922 -23.294 39.2106  255 255 255
-1.20655 -26.0778 41.0676  255 255 255
-10.7682 -23.9265 39.752  255 255 255
-42.2172 1.78487 -41.209  255 255 255
-21.0027 -20.5148 33.6776  255 255 255
-21.0027 -20.5148 33.6776  255 255 255
-9.82849 -24.4593 39.9818  255 255 255
-9.83168 -24.4671 40.0064  255 255 255
7.64347 -28.7643 43.139  255 255 255
-18.8649 -21.753 35.3576  255 255 255
-16.8286 -22.6089 36.9218  255 255 255
-9.05734 -24.9227 40.1108  255 255 255
-5.77617 -25.8184 40.9238  255 255 255
-31.323 -17.2124 24.4596  255 255 255
-31.323 -17.2124 24.4596  255 255 255
-27.1382 -19.8704 32.0264  255 255 255
-12.6666 -24.4288 38.925  255 255 255
-10.3092 -25.0523 39.5305  255 255 255
-18.7297 -22.7101 35.6257  255 255 255
77.6088 -36.0903 8.91499  255 255 255
-42.044 -1.0012 -37.8499  255 255 255
-11.2399 -25.2482 39.1876  255 255 255
-29.9596 -4.63667 -32.8488  255 255 255
-28.04 -6.24983 -30.7343  255 255 255
-28.7863 -20.3904 30.5154  255 255 255
79.4091 -38.5854 11.3117  255 255 255
-27.493 -21.7429 34.2414  255 255 255
-28.7013 -20.6842 30.6275  255 255 255
-10.7458 -26.702 40.742  255 255 255
-20.869 -23.9453 37.2012  255 255 255
-0.295154 -30.3505 44.4101  255 255 255
-7.80035 -28.5578 43.0818  255 255 255
-30.1693 -20.2073 26.3826  255 255 255
-50.9108 -2.51408 -35.7953  255 255 255
-1.22562 -30.2979 43.964  255 255 255
0.563483 -30.7568 43.9916  255 255 255
17.0138 -32.6282 36.3984  255 255 255
73.6526 -39.537 12.8594  255 255 255
-44.5929 -5.73304 -31.7056  255 255 255
-24.6124 -24.5453 34.7415  255 255 255
-28.1164 -22.8179 29.1141  255 255 255
0.220374 -32.1905 42.8406  255 255 255
-46.8305 -7.34763 -29.5275  255 255 255
-52.8261 -6.2248 -30.8111  255 255 255
-21.641 -26.6296 36.5663  255 255 255
-26.6537 -24.7351 32.1832  255 255 255
-13.0981 -29.564 41.5316  255 255 255
-27.0105 -24.8899 32.4424  255 255 255
-12.2799 -29.9785 41.6804  255 255 255
-12.9119 -29.926 41.6422  255 255 255
-26.93 -25.3731 31.8638  255 255 255
-22.4553 -26.9534 34.9798  255 255 255
-1.40603 -33.1029 42.2749  255 255 255
-30.3866 -22.908 22.8718  255 255 255
-1.10239 -33.3233 42.0169  255 255 255
-38.9157 -12.6472 -22.2962  255 255 255
-18.3803 -29.5767 39.6545  255 255 255
-6.70011 -33.099 43.846  255 255 255
-41.6333 -12.9476 -21.6314  255 255 255
12.0366 -36.0469 36.2675  255 255 255
-25.8818 -26.8171 30.9622  255 255 255
-25.8818 -26.8171 30.9622  255 255 255
-13.4522 -31.3851 39.9756  255 255 255
5.88866 -35.8921 39.8088  255 255 255
-24.7272 -27.5956 32.2303  255 255 255
-12.1952 -32.2735 39.6759  255 255 255
-51.7576 -12.5095 -22.8948  255 255 255
6.0145 -36.806 39.9659  255 255 255
-18.4167 -31.0866 38.661  255 255 255
-13.1089 -32.4377 39.084  255 255 255
-52.8267 -12.9233 -22.6691  255 255 255
13.1213 -37.8565 35.1707  255 255 255
-52.5193 -13.1792 -21.9961  255 255 255
-29.4642 -26.2287 23.5701  255 255 255
-7.75236 -34.2622 40.5143  255 255 255
48.1542 -42.6622 14.891  255 255 255
-16.5625 -31.8288 37.7294  255 255 255
-18.3735 -31.3464 36.7114  255 255 255
-58.6017 -12.8015 -22.6199  255 255 255
17.4299 -39.23 30.9586  255 255 255
-44.0309 -17.1074 -16.9092  255 255 255
-50.2926 -15.3417 -19.6622  255 255 255
10.88 -38.7746 35.7324  255 255 255
-11.6483 -34.19 37.9868  255 255 255
6.00801 -38.5191 38.5309  255 255 255
54.2015 -47.4258 22.9915  255 255 255
-7.26279 -35.753 39.8396  255 255 255
-13.845 -34.1106 37.5314  255 255 255
-26.473 -29.7674 28.5048  255 255 255
-26.4149 -30.0447 28.39  255 255 255
-26.1412 -30.2031 28.7149  255 255 255
-26.8894 -30.4585 28.1587  255 255 255
-26.8041 -30.4814 27.4346  255 255 255
-58.0729 -16.9534 -17.1075  255 255 255
-23.4895 -32.0235 30.8367  255 255 255
-28.267 -30.5519 27.77  255 255 255
-9.33468 -36.9915 37.7397  255 255 255
-29.3766 -29.784 21.6944  255 255 255
6.40666 -41.0969 35.8833  255 255 255
-24.7565 -32.4518 28.9221  255 255 255
-24.7573 -32.6985 28.2143  255 255 255
-2.18699 -39.712 37.0597  255 255 255
-21.6476 -34.3596 31.4838  255 255 255
-19.1494 -35.3823 32.6663  255 255 255
-7.01274 -39.1157 37.5346  255 255 255
-6.90888 -39.113 37.3794  255 255 255
-14.0283 -37.2059 35.2326  255 255 255
5.68151 -42.2363 34.9709  255 255 255
5.99462 -42.3937 34.9993  255 255 255
4.44538 -42.0743 35.0467  255 255 255
-13.7741 -37.5788 34.835  255 255 255
-7.0829 -39.8291 36.5716  255 255 255
-7.23301 -40.0739 37.9145  255 255 255
-26.3741 -34.5291 24.748  255 255 255
-26.7746 -34.5058 24.9084  255 255 255
-20.289 -37.1399 30.0461  255 255 255
-13.6561 -39.5794 33.411  255 255 255
17.2959 -48.6816 31.4027  255 255 255
-47.3288 -29.2795 -1.09035  255 255 255
-7.09569 -44.2501 35.5753  255 255 255
-18.0223 -41.621 31.9257  255 255 255
-19.0819 -42.1244 30.7035  255 255 255
-6.15777 -46.1283 34.176  255 255 255
-7.71207 -47.3422 37.6507  255 255 255
-7.49849 -49.0023 37.2307  255 255 255
-31.0505 -41.5373 23.7584  255 255 255
-31.0486 -41.538 23.7701  255 255 255
-1.06532 -50.8396 35.2364  255 255 255
-51.5394 -36.321 7.16614  255 255 255
-30.5008 -42.7414 23.6982  255 255 255
-47.4144 -37.8662 9.63914  255 255 255
-50.7903 -37.2563 8.27069  255 255 255
-5.76397 -52.2742 35.0531  255 255 255
-20.3677 -48.2575 31.1611  255 255 255
-19.0126 -49.6183 31.1835  255 255 255
-10.0479 -53.2995 34.8875  255 255 255
8.14906 -59.1022 38.0677  255 255 255
1.21953 -57.1185 37.579  255 255 255
-26.7271 -49.8455 30.0262  255 255 255
-7.44062 -61.1246 41.0408  255 255 255
-47.2682 -49.1136 24.3547  255 255 255
-12.9633 -59.9651 39.1862  255 255 255
-2.65941 -64.245 43.4759  255 255 255
-2.36787 -64.4437 45.0529  255 255 255
-52.7646 99.0753 -33.9495  255 255 255
8.14847 108.175 -53.4133  255 255 255
-5.27457 104.172 -47.8783  255 255 255
21.2146 111.945 -60.0251  255 255 255
26.5727 113.162 -61.8423  255 255 255
8.04334 107.74 -53.8472  255 255 255
17.6762 110.243 -58.4609  255 255 255
48.3311 118.009 -70.6854  255 255 255
57.9266 120.564 -74.3957  255 255 255
-5.63305 103.175 -48.5585  255 255 255
49.1905 118.048 -71.3908  255 255 255
53.5905 119.573 -73.6851  255 255 255
33.2462 113.354 -65.4518  255 255 255
47.1606 116.926 -72.3638  255 255 255
62.6719 120.773 -78.2953  255 255 255
62.4821 120.59 -77.9634  255 255 255
39.0895 114.423 -69.0997  255 255 255
15.4985 107.646 -59.0285  255 255 255
17.8538 108.481 -60.3491  255 255 255
39.3842 113.988 -69.3901  255 255 255
17.6955 107.848 -60.3555  255 255 255
14.6081 106.54 -59.1053  255 255 255
13.1912 105.437 -58.9258  255 255 255
65.4795 119.738 -81.2123  255 255 255
65.4745 119.735 -81.2075  255 255 255
15.9741 105.724 -59.9072  255 255 255
14.4442 105.183 -60.2167  255 255 255
62.8293 117.565 -81.2031  255 255 255
19.4762 105.571 -62.8723  255 255 255
68.8036 118.747 -83.9242  255 255 255
-26.98 90.5195 -38.443  255 255 255
-20.7874 94.8002 -45.1639  255 255 255
14.3673 104.132 -60.7933  255 255 255
57.8645 72.2751 -14.653  255 255 255
57.6299 72.5408 -15.2995  255 255 255
58.9819 70.4899 -12.289  255 255 255
10.5135 102.872 -59.4096  255 255 255
23.648 106.304 -65.3272  255 255 255
9.29638 102.447 -59.082  255 255 255
57.9643 71.4193 -14.5715  255 255 255
58.5427 70.5356 -13.3166  255 255 255
57.3625 72.6396 -16.7963  255 255 255
22.6021 105.28 -64.7934  255 255 255
-3.38058 98.5971 -53.7617  255 255 255
61.348 66.9269 -8.59597  255 255 255
4.49231 100.331 -57.093  255 255 255
59.0657 69.8561 -13.0728  255 255 255
26.3745 106.269 -67.1631  255 255 255
57.9614 70.9178 -15.1804  255 255 255
-20.4184 93.4388 -45.8905  255 255 255
-27.9609 91.4934 -42.6944  255 255 255
6.75035 100.693 -58.3886  255 255 255
23.8293 105.26 -66.2836  255 255 255
1.78052 99.0802 -56.1861  255 255 255
2.44626 99.1401 -56.3673  255 255 255
61.0407 67.1102 -10.2097  255 255 255
61.664 42.2355 27.8082  255 255 255
-48.6744 85.5164 -33.234  255 255 255
-46.8426 86.1104 -34.4068  255 255 255
-39.204 88.2145 -38.0784  255 255 255
-12.5078 95.2007 -50.5688  255 255 255
-51.4409 84.6602 -32.2366  255 255 255
16.39 102.434 -63.6292  255 255 255
-9.32494 95.6873 -52.1211  255 255 255
5.75006 99.4099 -58.6672  255 255 255
-41.6799 86.7923 -36.6118  255 255 255
17.2136 102.483 -64.1966  255 255 255
-34.2916 88.7601 -40.2195  255 255 255
-27.3198 90.7685 -43.8568  255 255 255
57.8329 71.4026 -18.8084  255 255 255
60.4273 67.1923 -12.347  255 255 255
2.58376 98.2544 -57.6513  255 255 255
-28.4181 90.2997 -43.5349  255 255 255
28.2595 104.994 -69.6633  255 255 255
61.1491 112.902 -83.4076  255 255 255
58.8031 68.203 -14.8439  255 255 255
58.8031 68.2031 -14.8439  255 255 255
56.0432 47.6337 17.0256  255 255 255
60.0175 42.9574 24.3831  255 255 255
-8.63624 94.9118 -53.0777  255 255 255
21.1084 102.639 -66.5655  255 255 255
19.9523 102.209 -66.1833  255 255 255
3.65134 97.5061 -58.5942  255 255 255
20.5767 102.05 -66.3902  255 255 255
-48.1732 84.4242 -35.1457  255 255 255
59.8977 43.7604 21.9616  255 255 255
13.3602 99.6468 -63.2337  255 255 255
57.97 69.0133 -17.9958  255 255 255
65.1922 38.9164 29.2105  255 255 255
-76.2075 76.9725 -21.5711  255 255 255
5.06991 97.6948 -59.9271  255 255 255
4.9298 97.5147 -59.5686  255 255 255
5.06992 97.6948 -59.9271  255 255 255
20.6024 101.636 -66.872  255 255 255
-76.3007 76.7438 -21.7467  255 255 255
-51.1136 83.2309 -34.0824  255 255 255
62.1252 40.1454 26.2009  255 255 255
69.7421 113.18 -88.7106  255 255 255
-64.0924 79.3831 -27.6785  255 255 255
63.9721 39.0634 27.5964  255 255 255
-48.8896 82.9108 -35.0777  255 255 255
28.855 101.88 -70.6228  255 255 255
3.05308 95.8923 -59.842  255 255 255
68.8197 35.4276 32.171  255 255 255
64.7392 110.62 -87.5537  255 255 255
58.2817 108.931 -85.2144  255 255 255
34.0986 102.787 -74.5704  255 255 255
74.6767 32.9769 35.1076  255 255 255
1.06253 94.1431 -59.6835  255 255 255
57.9262 66.0747 -19.9083  255 255 255
57.8598 66.1827 -19.887  255 255 255
53.076 106.689 -84.3074  255 255 255
-7.12907 91.585 -56.5093  255 255 255
103.354 118.407 -106.194  255 255 255
